# .PCD v0.7 - Point Cloud Data file format
VERSION 0.7
FIELDS x y z rgb
SIZE 4 4 4 4
TYPE F F F F
COUNT 1 1 1 1
WIDTH 1029
HEIGHT 1
VIEWPOINT 0 0 0 1 0 0 0
POINTS 1029
DATA ascii
0.60441947 -1.7730081 0.85356897 1.4373421e-38
0.61394233 -1.7731729 0.8525703 1.4373421e-38
0.62467951 -1.7747749 0.85185748 1.4373421e-38
0.63127673 -1.773417 0.8506093 1.4373421e-38
0.64724851 -1.7748694 0.85243422 1.4373421e-38
0.6551705 -1.7745947 0.85193974 1.4373421e-38
0.66491711 -1.7750813 0.85135233 1.4373421e-38
0.67550731 -1.7736912 0.85048693 1.4373421e-38
0.51781446 -1.7634157 0.85261947 1.4373421e-38
0.52414429 -1.7668958 0.85352057 1.4373421e-38
0.53375202 -1.7650911 0.85432625 1.4373421e-38
0.54432768 -1.7665437 0.85367775 1.4373421e-38
0.55442238 -1.7663902 0.85374624 1.4373421e-38
0.56449628 -1.7661768 0.8538416 1.4373421e-38
0.57458097 -1.7660044 0.85391855 1.4373421e-38
0.58460522 -1.7648388 0.85259587 1.4373421e-38
0.595263 -1.7664033 0.85189605 1.4373421e-38
0.60280991 -1.7695314 0.85234398 1.4373421e-38
0.61537063 -1.7601855 0.85283601 1.4373421e-38
0.62400484 -1.7607695 0.85257405 1.4373421e-38
0.63546288 -1.7653265 0.85237932 1.4373421e-38
0.6446141 -1.764531 0.85181183 1.4373421e-38
0.65552998 -1.7639399 0.85115194 1.4373421e-38
0.666089 -1.7650647 0.85064721 1.4373421e-38
0.67320871 -1.7660085 0.8502239 1.4373421e-38
0.51465183 -1.7542061 0.85184389 1.4373421e-38
0.52458966 -1.7545041 0.85354972 1.4373421e-38
0.53483331 -1.7550222 0.85331708 1.4373421e-38
0.54523045 -1.7560343 0.85286266 1.4373421e-38
0.55525023 -1.7557951 0.85297036 1.4373421e-38
0.5653041 -1.755672 0.85302567 1.4373421e-38
0.57478708 -1.7540805 0.8514446 1.4373421e-38
0.58563328 -1.7553107 0.85134602 1.4373421e-38
0.59602594 -1.754086 0.85281944 1.4373421e-38
0.60499108 -1.7554858 0.8527416 1.4373421e-38
0.61395311 -1.7549021 0.8524518 1.4373421e-38
0.62551099 -1.753883 0.85198951 1.4373421e-38
0.63595152 -1.7548656 0.85154653 1.4373421e-38
0.64644504 -1.7559618 0.85105258 1.4373421e-38
0.6552068 -1.7568954 0.85063171 1.4373421e-38
0.66397697 -1.7578254 0.85021257 1.4373421e-38
0.50919306 -1.7444978 0.85072947 1.4373421e-38
0.5157336 -1.7439629 0.85097235 1.4373421e-38
0.52509451 -1.7448821 0.85147107 1.4373421e-38
0.53618044 -1.7459596 0.85189742 1.4373421e-38
0.54614395 -1.7456828 0.85202283 1.4373421e-38
0.55607891 -1.7453256 0.85218459 1.4373421e-38
0.56441104 -1.745203 0.85224009 1.4373421e-38
0.5794816 -1.7452142 0.85223508 1.4373421e-38
0.58621544 -1.745326 0.8521843 1.4373421e-38
0.59634548 -1.7455755 0.85207134 1.4373421e-38
0.60654932 -1.7460313 0.85186499 1.4373421e-38
0.61505729 -1.746413 0.85169214 1.4373421e-38
0.62487799 -1.74419 0.85123569 1.4373421e-38
0.63470119 -1.7443457 0.85079861 1.4373421e-38
0.64429694 -1.7460181 0.85040647 1.4373421e-38
0.65313858 -1.7497108 0.85019857 1.4373421e-38
0.51680237 -1.7337992 0.8501097 1.4373421e-38
0.52543563 -1.7353493 0.85062224 1.4373421e-38
0.53552395 -1.7359065 0.8509776 1.4373421e-38
0.54541594 -1.7355466 0.85114187 1.4373421e-38
0.55405837 -1.7369137 0.85143173 1.4373421e-38
0.56542253 -1.735579 0.85112774 1.4373421e-38
0.5760715 -1.7343199 0.85133612 1.4373421e-38
0.58528703 -1.7351407 0.85132694 1.4373421e-38
0.59539837 -1.7354699 0.85117674 1.4373421e-38
0.60555607 -1.7359222 0.85097051 1.4373421e-38
0.6157189 -1.7363735 0.85076451 1.4373421e-38
0.62389296 -1.7356482 0.8504858 1.4373421e-38
0.63010168 -1.7338303 0.85009545 1.4373421e-38
0.53820884 -1.725976 0.85004568 1.4373421e-38
0.54476523 -1.7257109 0.85016757 1.4373421e-38
0.56613517 -1.7250807 0.85045701 1.4373421e-38
0.57441509 -1.7250358 0.8504777 1.4373421e-38
0.58437556 -1.7250563 0.85046822 1.4373421e-38
0.5944621 -1.7254454 0.85028952 1.4373421e-38
0.60457265 -1.7258903 0.85008508 1.4373421e-38
-0.8739934 -1.342802 0.73930842 1.370199e-38
-0.86556709 -1.342802 0.73930842 1.370199e-38
-0.85433203 -1.3428019 0.73930848 1.370199e-38
-0.84450132 -1.3428019 0.73930854 1.370199e-38
-0.83467078 -1.3428019 0.73930848 1.370199e-38
-0.82484007 -1.3428019 0.73930854 1.370199e-38
-0.81500936 -1.3428018 0.73930854 1.370199e-38
-0.80517882 -1.3428017 0.73930854 1.370199e-38
-0.79534811 -1.3428018 0.73930854 1.370199e-38
-0.78551745 -1.3428017 0.73930854 1.370199e-38
-0.77568674 -1.3428017 0.7393086 1.370199e-38
-0.76445174 -1.3428017 0.7393086 1.370199e-38
-0.75462103 -1.3428017 0.7393086 1.370199e-38
-0.74479038 -1.3428016 0.73930866 1.370199e-38
-0.73495966 -1.3428016 0.73930866 1.370199e-38
-0.72512907 -1.3428016 0.73930871 1.370199e-38
-0.71529841 -1.3428016 0.73930866 1.370199e-38
-0.70546782 -1.3428016 0.73930871 1.370199e-38
-0.69423264 -1.3428016 0.73930871 1.370199e-38
-0.68440199 -1.3428016 0.73930866 1.370199e-38
-0.67457139 -1.3428016 0.73930871 1.370199e-38
-0.66474068 -1.3428015 0.73930883 1.370199e-38
-0.65491003 -1.3428015 0.73930883 1.370199e-38
-0.64507943 -1.3428015 0.73930883 1.370199e-38
-0.63524878 -1.3428015 0.73930883 1.370199e-38
-0.62541807 -1.3428015 0.73930889 1.370199e-38
-0.61558741 -1.3428015 0.73930889 1.370199e-38
-0.60435241 -1.3428015 0.73930889 1.370199e-38
-0.59452176 -1.3428015 0.73930889 1.370199e-38
-0.58469111 -1.3428013 0.73930889 1.370199e-38
-0.57486051 -1.3428015 0.73930889 1.370199e-38
-0.56502974 -1.3428013 0.73930889 1.370199e-38
-0.55519915 -1.3428012 0.73930889 1.370199e-38
-0.54536849 -1.3428012 0.73930895 1.370199e-38
-0.5355379 -1.3428012 0.73930901 1.370199e-38
-0.52570719 -1.3428012 0.73930895 1.370199e-38
-0.51447213 -1.3428011 0.73930901 1.370199e-38
-0.50464147 -1.3428011 0.73930907 1.370199e-38
-0.49481085 -1.3428011 0.73930907 1.370199e-38
-0.4849802 -1.3428011 0.73930907 1.370199e-38
-0.47514957 -1.342801 0.73930913 1.370199e-38
-0.46531892 -1.342801 0.73930913 1.370199e-38
-0.45548823 -1.342801 0.73930913 1.370199e-38
-0.44425324 -1.342801 0.73930913 1.370199e-38
-0.43442258 -1.3428007 0.73930913 1.370199e-38
-0.42459196 -1.3428009 0.73930919 1.370199e-38
-0.4147613 -1.3428007 0.73930913 1.370199e-38
-0.40493059 -1.3428009 0.73930919 1.370199e-38
-0.39509997 -1.3428007 0.73930925 1.370199e-38
-0.38526934 -1.3428007 0.73930925 1.370199e-38
-0.37543869 -1.3428007 0.73930925 1.370199e-38
-0.36560807 -1.3428007 0.73930931 1.370199e-38
-0.35437301 -1.3428006 0.73930931 1.370199e-38
-0.34454238 -1.3428006 0.73930931 1.370199e-38
-0.33471173 -1.3428006 0.73930931 1.370199e-38
-0.32488108 -1.3428006 0.73930931 1.370199e-38
-0.31505042 -1.3428006 0.73930937 1.370199e-38
-0.30521977 -1.3428006 0.73930937 1.370199e-38
-0.29538915 -1.3428006 0.73930937 1.370199e-38
-0.28555849 -1.3428005 0.73930937 1.370199e-38
-0.27572784 -1.3428005 0.73930943 1.370199e-38
-0.26449284 -1.3428005 0.73930943 1.370199e-38
-0.25466222 -1.3428005 0.73930949 1.370199e-38
-0.24483155 -1.3428004 0.73930949 1.370199e-38
-0.23500092 -1.3428005 0.73930955 1.370199e-38
-0.22517028 -1.3428004 0.73930955 1.370199e-38
-0.21533965 -1.3428005 0.73930955 1.370199e-38
-0.20550898 -1.3428003 0.73930961 1.370199e-38
-0.19427398 -1.3428003 0.73930961 1.370199e-38
-0.18444334 -1.3428003 0.73930961 1.370199e-38
-0.1746127 -1.3428001 0.73930961 1.370199e-38
-0.16478206 -1.3428001 0.73930961 1.370199e-38
-0.15495142 -1.3428001 0.73930967 1.370199e-38
-0.14512078 -1.3428001 0.73930961 1.370199e-38
-0.13529015 -1.3428001 0.73930967 1.370199e-38
-0.12545951 -1.3428 0.73930973 1.370199e-38
-0.11562887 -1.3428 0.73930973 1.370199e-38
-0.10439386 -1.3428 0.73930973 1.370199e-38
-0.094563223 -1.3427998 0.73930979 1.370199e-38
-0.084732592 -1.3427999 0.73930979 1.370199e-38
-0.074901953 -1.3427998 0.73930979 1.370199e-38
-0.065071322 -1.3427999 0.73930979 1.370199e-38
-0.05524068 -1.3427998 0.73930997 1.370199e-38
-0.045410052 -1.3427998 0.73930991 1.370199e-38
-0.035579417 -1.3427998 0.73930997 1.370199e-38
-0.025748786 -1.3427998 0.73930991 1.370199e-38
-0.014513774 -1.3427997 0.73930997 1.370199e-38
-0.0046831425 -1.3427997 0.73930997 1.370199e-38
0.0051474888 -1.3427997 0.73930997 1.370199e-38
0.014978121 -1.3427997 0.73930997 1.370199e-38
0.024808751 -1.3427997 0.73931003 1.370199e-38
0.034639385 -1.3427997 0.73931003 1.370199e-38
0.044470012 -1.3427997 0.73931003 1.370199e-38
0.055705018 -1.3427995 0.73931009 1.370199e-38
0.06553565 -1.3427995 0.73931009 1.370199e-38
0.075366274 -1.3427995 0.73931009 1.370199e-38
0.085196905 -1.3427995 0.73931009 1.370199e-38
0.095027536 -1.3427995 0.73931009 1.370199e-38
0.10485816 -1.3427995 0.73931009 1.370199e-38
0.11468878 -1.3427994 0.73931015 1.370199e-38
0.12451943 -1.3427995 0.73931009 1.370199e-38
0.13435003 -1.3427994 0.73931015 1.370199e-38
0.14558503 -1.3427994 0.7393102 1.370199e-38
0.15541567 -1.3427995 0.7393102 1.370199e-38
0.16524629 -1.3427994 0.7393102 1.370199e-38
0.17507692 -1.3427993 0.73931026 1.370199e-38
0.18490754 -1.3427993 0.73931026 1.370199e-38
0.19473819 -1.3427993 0.73931026 1.370199e-38
0.2045688 -1.3427993 0.73931026 1.370199e-38
0.21439941 -1.3427992 0.73931044 1.370199e-38
0.22423004 -1.3427992 0.73931038 1.370199e-38
0.23546505 -1.3427992 0.73931038 1.370199e-38
0.24529566 -1.3427992 0.73931044 1.370199e-38
0.25512627 -1.3427991 0.73931044 1.370199e-38
0.26495689 -1.3427991 0.73931044 1.370199e-38
0.27478752 -1.3427991 0.73931044 1.370199e-38
0.28461814 -1.3427991 0.7393105 1.370199e-38
0.29444876 -1.3427989 0.7393105 1.370199e-38
0.30568376 -1.3427989 0.7393105 1.370199e-38
0.31551439 -1.3427988 0.7393105 1.370199e-38
0.32534501 -1.3427989 0.73931056 1.370199e-38
0.33517563 -1.3427988 0.73931056 1.370199e-38
0.34500623 -1.3427989 0.73931056 1.370199e-38
0.35483685 -1.3427988 0.73931056 1.370199e-38
0.36466745 -1.3427988 0.73931062 1.370199e-38
0.37449804 -1.3427988 0.73931056 1.370199e-38
0.38432869 -1.3427988 0.73931062 1.370199e-38
0.39556366 -1.3427988 0.73931062 1.370199e-38
0.40539432 -1.3427987 0.73931068 1.370199e-38
0.41522497 -1.3427987 0.73931068 1.370199e-38
0.42505559 -1.3427987 0.73931068 1.370199e-38
0.43488616 -1.3427987 0.73931068 1.370199e-38
0.44471678 -1.3427986 0.73931074 1.370199e-38
0.45454738 -1.3427986 0.73931074 1.370199e-38
0.46578237 -1.3427986 0.73931074 1.370199e-38
0.475613 -1.3427986 0.73931074 1.370199e-38
0.48544359 -1.3427985 0.7393108 1.370199e-38
0.49527419 -1.3427986 0.7393108 1.370199e-38
0.50510484 -1.3427985 0.7393108 1.370199e-38
0.51493543 -1.3427984 0.73931092 1.370199e-38
0.52476603 -1.3427984 0.73931086 1.370199e-38
0.53459668 -1.3427984 0.73931092 1.370199e-38
0.54442734 -1.3427984 0.73931086 1.370199e-38
0.55566227 -1.3427982 0.73931086 1.370199e-38
0.56549287 -1.3427982 0.73931092 1.370199e-38
0.57532352 -1.3427982 0.73931092 1.370199e-38
0.58515412 -1.3427982 0.73931092 1.370199e-38
0.59498471 -1.3427981 0.73931098 1.370199e-38
0.6048153 -1.3427981 0.73931098 1.370199e-38
0.6146459 -1.3427981 0.73931098 1.370199e-38
0.62447661 -1.3427981 0.73931098 1.370199e-38
0.63430715 -1.3427981 0.7393111 1.370199e-38
0.64554209 -1.3427981 0.7393111 1.370199e-38
0.65537268 -1.3427981 0.73931104 1.370199e-38
0.66520333 -1.342798 0.7393111 1.370199e-38
0.67503387 -1.3427979 0.73931116 1.370199e-38
0.68486458 -1.342798 0.73931116 1.370199e-38
0.69469517 -1.3427979 0.73931116 1.370199e-38
0.70452571 -1.3427979 0.73931122 1.370199e-38
0.71576077 -1.3427979 0.73931122 1.370199e-38
0.72559136 -1.3427979 0.73931122 1.370199e-38
0.7354219 -1.3427979 0.73931122 1.370199e-38
0.74525243 -1.3427978 0.73931122 1.370199e-38
0.75508308 -1.3427978 0.73931128 1.370199e-38
0.76491374 -1.3427978 0.73931128 1.370199e-38
0.77474433 -1.3427978 0.73931128 1.370199e-38
0.78457499 -1.3427976 0.7393114 1.370199e-38
0.79440558 -1.3427976 0.73931134 1.370199e-38
0.80564052 -1.3427976 0.73931134 1.370199e-38
0.81547111 -1.3427976 0.7393114 1.370199e-38
0.82530171 -1.3427975 0.73931146 1.370199e-38
0.8351323 -1.3427976 0.73931146 1.370199e-38
0.84496295 -1.3427975 0.73931146 1.370199e-38
0.85479355 -1.3427976 0.73931146 1.370199e-38
0.86462408 -1.3427974 0.73931146 1.370199e-38
0.87445468 -1.3427974 0.73931146 1.370199e-38
0.88428527 -1.3427974 0.73931146 1.370199e-38
0.89552021 -1.3427973 0.73931158 1.370199e-38
0.90535086 -1.3427973 0.73931152 1.370199e-38
0.91237271 -1.3427973 0.73931158 1.370199e-38
-0.8725971 -1.3428019 0.7453832 1.370199e-38
-0.86512297 -1.3428019 0.74605638 1.370199e-38
-0.85484827 -1.3428019 0.74636286 1.370199e-38
-0.84503251 -1.3428019 0.74571967 1.370199e-38
-0.83522964 -1.3428019 0.74636292 1.370199e-38
-0.82494348 -1.3428019 0.74575049 1.370199e-38
-0.81514436 -1.3428019 0.74639332 1.370199e-38
-0.8053211 -1.3428019 0.74575061 1.370199e-38
-0.79504985 -1.3428019 0.74605656 1.370199e-38
-0.78478169 -1.3428019 0.7463631 1.370199e-38
-0.77495229 -1.3428018 0.74571985 1.370199e-38
-0.76516318 -1.3428018 0.7463631 1.370199e-38
-0.75486356 -1.3428017 0.74575067 1.370199e-38
-0.74507856 -1.3428017 0.74639356 1.370199e-38
-0.73524135 -1.3428017 0.74575067 1.370199e-38
-0.72497684 -1.3428015 0.74605662 1.370199e-38
-0.7147153 -1.3428013 0.74636322 1.370199e-38
-0.70487183 -1.3428015 0.74571991 1.370199e-38
-0.69509667 -1.3428013 0.74636322 1.370199e-38
-0.68478394 -1.3428012 0.74575084 1.370199e-38
-0.67501283 -1.3428012 0.74639356 1.370199e-38
-0.66516167 -1.3428012 0.74575084 1.370199e-38
-0.65539449 -1.3428012 0.74639362 1.370199e-38
-0.64509457 -1.3428012 0.74605703 1.370199e-38
-0.63479143 -1.3428012 0.74572003 1.370199e-38
-0.62503022 -1.3428012 0.74636328 1.370199e-38
-0.61470431 -1.3428012 0.74575096 1.370199e-38
-0.60494709 -1.3428012 0.7463938 1.370199e-38
-0.59508204 -1.3428012 0.74575096 1.370199e-38
-0.5853287 -1.3428012 0.74639368 1.370199e-38
-0.57502145 -1.3428011 0.74605703 1.370199e-38
-0.56471121 -1.3428011 0.74572015 1.370199e-38
-0.55496383 -1.3428011 0.74636346 1.370199e-38
-0.54508865 -1.3428011 0.74572015 1.370199e-38
-0.53534532 -1.3428011 0.74636346 1.370199e-38
-0.52500242 -1.3428011 0.74575102 1.370199e-38
-0.51526296 -1.3428011 0.7463938 1.370199e-38
-0.5049485 -1.342801 0.74605709 1.370199e-38
-0.49463081 -1.342801 0.74572021 1.370199e-38
-0.48489743 -1.342801 0.74636358 1.370199e-38
-0.4750084 -1.342801 0.74572033 1.370199e-38
-0.46527892 -1.342801 0.74636358 1.370199e-38
-0.4549228 -1.342801 0.74575114 1.370199e-38
-0.44519719 -1.342801 0.74639398 1.370199e-38
-0.43487549 -1.342801 0.74605733 1.370199e-38
-0.42506525 -1.3428009 0.74605739 1.370199e-38
-0.41525504 -1.342801 0.74605733 1.370199e-38
-0.40492812 -1.3428009 0.74572057 1.370199e-38
-0.39521253 -1.342801 0.7463637 1.370199e-38
-0.38484314 -1.3428009 0.74575138 1.370199e-38
-0.37513152 -1.3428007 0.74639422 1.370199e-38
-0.36480251 -1.3428005 0.74605745 1.370199e-38
-0.35499227 -1.3428005 0.74605745 1.370199e-38
-0.34518203 -1.3428005 0.74605745 1.370199e-38
-0.33484787 -1.3428005 0.74572051 1.370199e-38
-0.3251462 -1.3428003 0.74636388 1.370199e-38
-0.31476358 -1.3428003 0.74575144 1.370199e-38
-0.30506581 -1.3428004 0.74639422 1.370199e-38
-0.29472956 -1.3428003 0.74605751 1.370199e-38
-0.28491932 -1.3428004 0.74605751 1.370199e-38
-0.27510914 -1.3428003 0.74605757 1.370199e-38
-0.2652989 -1.3428003 0.74605769 1.370199e-38
-0.25548872 -1.3428003 0.74605757 1.370199e-38
-0.244684 -1.3428003 0.74575156 1.370199e-38
-0.23500016 -1.3428003 0.74639434 1.370199e-38
-0.22465658 -1.3428001 0.74605775 1.370199e-38
-0.2148464 -1.3428001 0.74605775 1.370199e-38
-0.20503616 -1.3428001 0.74605769 1.370199e-38
-0.19522597 -1.3428001 0.74605775 1.370199e-38
-0.18541574 -1.3428001 0.74605769 1.370199e-38
-0.17506492 -1.3428001 0.74572098 1.370199e-38
-0.16539496 -1.3428001 0.74636418 1.370199e-38
-0.15458365 -1.3428001 0.74605793 1.370199e-38
-0.14477345 -1.3428001 0.74605781 1.370199e-38
-0.13496326 -1.3428 0.74605793 1.370199e-38
-0.12515305 -1.3428001 0.74605793 1.370199e-38
-0.11534285 -1.3428 0.74605793 1.370199e-38
-0.10498474 -1.3428 0.74572104 1.370199e-38
-0.095328696 -1.3428 0.74636424 1.370199e-38
-0.084510773 -1.3428 0.74605793 1.370199e-38
-0.074700564 -1.3427999 0.74605805 1.370199e-38
-0.064890362 -1.3428 0.74605799 1.370199e-38
-0.05508016 -1.3427999 0.74605799 1.370199e-38
-0.045269962 -1.3427998 0.74605799 1.370199e-38
-0.035459757 -1.3427998 0.74605805 1.370199e-38
-0.025649553 -1.3428 0.74605799 1.370199e-38
-0.014437891 -1.3427998 0.74605805 1.370199e-38
-0.0046276888 -1.3427997 0.74605811 1.370199e-38
0.0051825126 -1.3427998 0.74605805 1.370199e-38
0.014992714 -1.3427997 0.74605811 1.370199e-38
0.024802918 -1.3427995 0.74605817 1.370199e-38
0.034613114 -1.3427995 0.74605811 1.370199e-38
0.044423316 -1.3427993 0.74605823 1.370199e-38
0.055634972 -1.3427993 0.74605817 1.370199e-38
0.06544517 -1.3427994 0.74605823 1.370199e-38
0.075255372 -1.3427993 0.74605829 1.370199e-38
0.085065573 -1.3427993 0.74605834 1.370199e-38
0.094875775 -1.3427993 0.74605823 1.370199e-38
0.10468597 -1.3427993 0.74605823 1.370199e-38
0.11449616 -1.3427993 0.7460584 1.370199e-38
0.1253154 -1.3427992 0.74636465 1.370199e-38
0.13496867 -1.3427992 0.74572146 1.370199e-38
0.14532821 -1.3427992 0.7460584 1.370199e-38
0.15513842 -1.3427992 0.74605846 1.370199e-38
0.1649486 -1.3427992 0.74605846 1.370199e-38
0.17475878 -1.3427992 0.7460584 1.370199e-38
0.18456899 -1.3427992 0.74605846 1.370199e-38
0.19538158 -1.3427992 0.74636477 1.370199e-38
0.20504873 -1.3427992 0.74572152 1.370199e-38
0.21540104 -1.3427992 0.7460584 1.370199e-38
0.22521122 -1.3427992 0.7460584 1.370199e-38
0.23502141 -1.3427992 0.74605846 1.370199e-38
0.24483159 -1.3427991 0.74605858 1.370199e-38
0.2546418 -1.3427991 0.74605852 1.370199e-38
0.26498675 -1.3427991 0.74639529 1.370199e-38
0.27466783 -1.3427991 0.74575251 1.370199e-38
0.28547385 -1.3427991 0.74605864 1.370199e-38
0.295284 -1.3427991 0.74605858 1.370199e-38
0.30509421 -1.3427991 0.74605864 1.370199e-38
0.31490442 -1.3427989 0.74605864 1.370199e-38
0.32471457 -1.3427991 0.7460587 1.370199e-38
0.33505225 -1.3427989 0.74639547 1.370199e-38
0.34474722 -1.3427988 0.74575257 1.370199e-38
0.35513249 -1.3427987 0.74636513 1.370199e-38
0.36483133 -1.3427986 0.74572182 1.370199e-38
0.37516701 -1.3427986 0.74605876 1.370199e-38
0.38497719 -1.3427987 0.74605876 1.370199e-38
0.39478734 -1.3427986 0.74605888 1.370199e-38
0.40511775 -1.3427985 0.74639559 1.370199e-38
0.4148266 -1.3427984 0.74575269 1.370199e-38
0.42519858 -1.3427984 0.74636513 1.370199e-38
0.43491134 -1.3427985 0.74572194 1.370199e-38
0.44523969 -1.3427984 0.74605888 1.370199e-38
0.45504987 -1.3427984 0.74605888 1.370199e-38
0.46486011 -1.3427984 0.74605888 1.370199e-38
0.47518319 -1.3427984 0.74639559 1.370199e-38
0.48490599 -1.3427984 0.74575287 1.370199e-38
0.49526471 -1.3427982 0.74636531 1.370199e-38
0.50499135 -1.3427984 0.745722 1.370199e-38
0.51488322 -1.3427982 0.74636531 1.370199e-38
0.52461374 -1.3427982 0.74572206 1.370199e-38
0.53493285 -1.3427982 0.74605912 1.370199e-38
0.54524869 -1.3427982 0.74639577 1.370199e-38
0.55498534 -1.3427982 0.74575293 1.370199e-38
0.56533086 -1.3427982 0.74636549 1.370199e-38
0.57507145 -1.3427982 0.74572217 1.370199e-38
0.58494925 -1.3427982 0.74636537 1.370199e-38
0.59469378 -1.3427982 0.74572217 1.370199e-38
0.60500556 -1.3427981 0.74605912 1.370199e-38
0.61531407 -1.3427981 0.74639589 1.370199e-38
0.62506461 -1.3427981 0.74575305 1.370199e-38
0.6349324 -1.3427981 0.74639595 1.370199e-38
0.64468682 -1.3427981 0.74575323 1.370199e-38
0.65501541 -1.3427981 0.74636555 1.370199e-38
0.66477376 -1.342798 0.74572241 1.370199e-38
0.67507821 -1.3427981 0.74605924 1.370199e-38
0.68537951 -1.342798 0.74639606 1.370199e-38
0.69514394 -1.3427979 0.74575329 1.370199e-38
0.70499784 -1.3427979 0.74639612 1.370199e-38
0.71476609 -1.3427979 0.74575329 1.370199e-38
0.7250815 -1.3427978 0.74636573 1.370199e-38
0.73485374 -1.3427975 0.74572241 1.370199e-38
0.7446999 -1.3427976 0.74636573 1.370199e-38
0.75496006 -1.3427974 0.74605918 1.370199e-38
0.76522315 -1.3427974 0.74575335 1.370199e-38
0.77506322 -1.3427974 0.74639618 1.370199e-38
0.78484535 -1.3427974 0.74575335 1.370199e-38
0.79514748 -1.3427974 0.7463659 1.370199e-38
0.80493367 -1.3427975 0.74572253 1.370199e-38
0.81476593 -1.3427974 0.7463659 1.370199e-38
0.82503265 -1.3427974 0.74605942 1.370199e-38
0.83530253 -1.3427974 0.74575347 1.370199e-38
0.84512854 -1.3427974 0.74639636 1.370199e-38
0.85492462 -1.3427974 0.74575347 1.370199e-38
0.86521339 -1.3427973 0.7463659 1.370199e-38
0.87501353 -1.3427973 0.74572265 1.370199e-38
0.88483185 -1.3427973 0.74636596 1.370199e-38
0.8951053 -1.3427973 0.74605948 1.370199e-38
0.90491551 -1.3427973 0.74605989 1.370199e-38
0.91192275 -1.3427973 0.7460593 1.370199e-38
-0.87121117 -1.3428018 0.75445676 1.370199e-38
-0.86515945 -1.3428019 0.75612968 1.370199e-38
-0.85491657 -1.3428019 0.75643438 1.370199e-38
-0.84466606 -1.3428019 0.75582576 1.370199e-38
-0.83489358 -1.3428017 0.75646454 1.370199e-38
-0.82510465 -1.3428017 0.75582576 1.370199e-38
-0.81486356 -1.3428017 0.7561298 1.370199e-38
-0.80462551 -1.3428017 0.75643438 1.370199e-38
-0.79483032 -1.3428015 0.75579512 1.370199e-38
-0.7850678 -1.3428016 0.75643438 1.370199e-38
-0.77480417 -1.3428016 0.75582582 1.370199e-38
-0.76504558 -1.3428015 0.7564646 1.370199e-38
-0.75524288 -1.3428012 0.75582582 1.370199e-38
-0.74500829 -1.3428012 0.7561298 1.370199e-38
-0.73477674 -1.3428012 0.7564345 1.370199e-38
-0.72496796 -1.3428013 0.75579536 1.370199e-38
-0.7152192 -1.3428012 0.7564345 1.370199e-38
-0.70494229 -1.3428012 0.75582594 1.370199e-38
-0.69519764 -1.3428012 0.75646478 1.370199e-38
-0.68493384 -1.3428012 0.75613022 1.370199e-38
-0.674667 -1.3428012 0.75579542 1.370199e-38
-0.6649282 -1.3428012 0.75643468 1.370199e-38
-0.65464187 -1.3428012 0.75582606 1.370199e-38
-0.64490706 -1.3428011 0.7564649 1.370199e-38
-0.63508058 -1.3428012 0.75582606 1.370199e-38
-0.62534958 -1.3428012 0.75646496 1.370199e-38
-0.61507857 -1.3428011 0.75613028 1.370199e-38
-0.60480446 -1.3428011 0.75579554 1.370199e-38
-0.59507954 -1.3428011 0.7564348 1.370199e-38
-0.58478004 -1.3428011 0.75582618 1.370199e-38
-0.57505906 -1.3428011 0.75646508 1.370199e-38
-0.56521875 -1.3428011 0.75582618 1.370199e-38
-0.55500215 -1.342801 0.75613022 1.370199e-38
-0.5447886 -1.342801 0.7564348 1.370199e-38
-0.53494209 -1.342801 0.75579554 1.370199e-38
-0.52523094 -1.342801 0.75643486 1.370199e-38
-0.51491827 -1.342801 0.75582635 1.370199e-38
-0.50521111 -1.342801 0.75646514 1.370199e-38
-0.49492773 -1.342801 0.75613052 1.370199e-38
-0.48464108 -1.3428009 0.75579578 1.370199e-38
-0.47494003 -1.342801 0.75643498 1.370199e-38
-0.46507969 -1.3428009 0.75579566 1.370199e-38
-0.45538238 -1.342801 0.75643498 1.370199e-38
-0.44505653 -1.3428009 0.75582635 1.370199e-38
-0.4353632 -1.3428007 0.75646526 1.370199e-38
-0.42507255 -1.3428005 0.7561307 1.370199e-38
-0.41477877 -1.3428005 0.75579584 1.370199e-38
-0.4050914 -1.3428005 0.75643516 1.370199e-38
-0.39475611 -1.3428005 0.75582653 1.370199e-38
-0.38507274 -1.3428005 0.75646538 1.370199e-38
-0.37477684 -1.3428003 0.75613075 1.370199e-38
-0.36499712 -1.3428004 0.75613081 1.370199e-38
-0.35521743 -1.3428003 0.75613075 1.370199e-38
-0.34491634 -1.3428004 0.75579596 1.370199e-38
-0.33524287 -1.3428003 0.75643522 1.370199e-38
-0.3248944 -1.3428003 0.75582659 1.370199e-38
-0.31522483 -1.3428003 0.75646549 1.370199e-38
-0.30492172 -1.3428003 0.75613087 1.370199e-38
-0.29514199 -1.3428003 0.75613087 1.370199e-38
-0.28536233 -1.3428003 0.75613093 1.370199e-38
-0.27505401 -1.3428003 0.75579607 1.370199e-38
-0.2653943 -1.3428001 0.75643522 1.370199e-38
-0.25462604 -1.3428001 0.75613087 1.370199e-38
-0.24484634 -1.3428001 0.75613087 1.370199e-38
-0.23506661 -1.3428001 0.75613087 1.370199e-38
-0.2252869 -1.3428001 0.75613087 1.370199e-38
-0.21550721 -1.3428001 0.75613087 1.370199e-38
-0.20473233 -1.3428 0.75582677 1.370199e-38
-0.19508651 -1.3428 0.75646567 1.370199e-38
-0.18477094 -1.3428 0.75613111 1.370199e-38
-0.17499125 -1.3428 0.75613117 1.370199e-38
-0.16521154 -1.3428 0.75613111 1.370199e-38
-0.15489081 -1.3428 0.75579631 1.370199e-38
-0.1452549 -1.3428 0.75643545 1.370199e-38
-0.13447531 -1.3428 0.75613123 1.370199e-38
-0.12469559 -1.3427999 0.75613111 1.370199e-38
-0.11491588 -1.3428 0.75613117 1.370199e-38
-0.10513618 -1.3427999 0.75613129 1.370199e-38
-0.095356464 -1.3428 0.75613123 1.370199e-38
-0.085028492 -1.3427999 0.75579643 1.370199e-38
-0.07540641 -1.3428 0.75643563 1.370199e-38
-0.064620249 -1.3427998 0.75613135 1.370199e-38
-0.054840539 -1.3427997 0.75613129 1.370199e-38
-0.045060832 -1.3427997 0.75613135 1.370199e-38
-0.035281122 -1.3427997 0.75613135 1.370199e-38
-0.025501421 -1.3427995 0.75613135 1.370199e-38
-0.014324616 -1.3427997 0.75613135 1.370199e-38
-0.0045449105 -1.3427993 0.75613141 1.370199e-38
0.0052347933 -1.3427993 0.75613141 1.370199e-38
0.015014498 -1.3427994 0.75613141 1.370199e-38
0.0247942 -1.3427993 0.75613141 1.370199e-38
0.034573901 -1.3427993 0.75613141 1.370199e-38
0.044353608 -1.3427993 0.75613147 1.370199e-38
0.055530414 -1.3427993 0.75613141 1.370199e-38
0.065310106 -1.3427993 0.75613153 1.370199e-38
0.075089812 -1.3427992 0.75613147 1.370199e-38
0.084869519 -1.3427993 0.75613147 1.370199e-38
0.094649218 -1.3427992 0.75613159 1.370199e-38
0.10497864 -1.3427992 0.75646621 1.370199e-38
0.11459792 -1.3427992 0.75582749 1.370199e-38
0.1253854 -1.3427992 0.75613165 1.370199e-38
0.13516513 -1.3427992 0.75613171 1.370199e-38
0.14494482 -1.3427992 0.75613165 1.370199e-38
0.15472451 -1.3427991 0.75613171 1.370199e-38
0.16450422 -1.3427992 0.75613165 1.370199e-38
0.17528509 -1.3427991 0.75643611 1.370199e-38
0.18491825 -1.3427989 0.75579685 1.370199e-38
0.19524042 -1.3427991 0.75613171 1.370199e-38
0.2050201 -1.3427989 0.75613171 1.370199e-38
0.21479978 -1.3427991 0.75613183 1.370199e-38
0.22511676 -1.3427989 0.75646645 1.370199e-38
0.23475981 -1.3427991 0.75582767 1.370199e-38
0.24553597 -1.3427991 0.75613183 1.370199e-38
0.25531566 -1.3427989 0.75613189 1.370199e-38
0.26509535 -1.3427987 0.75613189 1.370199e-38
0.27487504 -1.3427989 0.75613189 1.370199e-38
0.28465474 -1.3427988 0.75613189 1.370199e-38
0.29496449 -1.3427986 0.75646651 1.370199e-38
0.30462134 -1.3427989 0.75582767 1.370199e-38
0.31539091 -1.3427987 0.75613195 1.370199e-38
0.32517064 -1.3427986 0.75613195 1.370199e-38
0.3349503 -1.3427984 0.75613207 1.370199e-38
0.34525484 -1.3427985 0.75646657 1.370199e-38
0.35492161 -1.3427984 0.7558279 1.370199e-38
0.36527264 -1.3427984 0.75643641 1.370199e-38
0.37494338 -1.3427985 0.75579721 1.370199e-38
0.38524589 -1.3427984 0.75613213 1.370199e-38
0.39502552 -1.3427984 0.75613219 1.370199e-38
0.40480521 -1.3427984 0.75613213 1.370199e-38
0.41510254 -1.3427984 0.75646687 1.370199e-38
0.42478314 -1.3427984 0.75582796 1.370199e-38
0.43512103 -1.3427984 0.75643671 1.370199e-38
0.44480553 -1.3427984 0.75579739 1.370199e-38
0.45510077 -1.3427982 0.7561323 1.370199e-38
0.46488047 -1.3427982 0.75613225 1.370199e-38
0.47466016 -1.3427982 0.75613219 1.370199e-38
0.48495013 -1.3427982 0.75646687 1.370199e-38
0.49464461 -1.3427982 0.75582808 1.370199e-38
0.5049693 -1.3427982 0.75643671 1.370199e-38
0.51466763 -1.3427982 0.75579745 1.370199e-38
0.52495563 -1.3427982 0.7561323 1.370199e-38
0.53524053 -1.3427982 0.75646698 1.370199e-38
0.54494482 -1.3427982 0.75582814 1.370199e-38
0.55526012 -1.3427981 0.75643677 1.370199e-38
0.56496847 -1.3427981 0.75579751 1.370199e-38
0.5748176 -1.3427981 0.75643677 1.370199e-38
0.58452982 -1.3427981 0.75579751 1.370199e-38
0.59481055 -1.3427981 0.75613242 1.370199e-38
0.60508811 -1.3427981 0.75646704 1.370199e-38
0.61480629 -1.3427981 0.75582832 1.370199e-38
0.62510836 -1.3427981 0.75643688 1.370199e-38
0.63483047 -1.342798 0.75579774 1.370199e-38
0.64510602 -1.3427979 0.75613242 1.370199e-38
0.65537846 -1.3427979 0.75646716 1.370199e-38
0.66510653 -1.3427979 0.75582832 1.370199e-38
0.6749357 -1.3427979 0.75646722 1.370199e-38
0.68466777 -1.3427975 0.75582832 1.370199e-38
0.69495666 -1.3427976 0.75643706 1.370199e-38
0.70469254 -1.3427975 0.75579774 1.370199e-38
0.71496081 -1.3427974 0.7561326 1.370199e-38
0.72522604 -1.3427974 0.75646728 1.370199e-38
0.73496795 -1.3427974 0.75582844 1.370199e-38
0.7452473 -1.3427974 0.75643712 1.370199e-38
0.75499326 -1.3427974 0.75579792 1.370199e-38
0.76480484 -1.3427974 0.75643724 1.370199e-38
0.7750349 -1.3427973 0.75613248 1.370199e-38
0.78526819 -1.3427973 0.75582862 1.370199e-38
0.79507363 -1.3427973 0.7564674 1.370199e-38
0.80482924 -1.3427973 0.75582862 1.370199e-38
0.81509566 -1.3427973 0.75643724 1.370199e-38
0.82485533 -1.3427973 0.75579798 1.370199e-38
0.83465314 -1.3427973 0.75643724 1.370199e-38
0.8448897 -1.3427973 0.75613266 1.370199e-38
0.85512948 -1.3427973 0.75582868 1.370199e-38
0.86492109 -1.3427973 0.75646746 1.370199e-38
0.87469077 -1.3427973 0.7558288 1.370199e-38
0.88494378 -1.3427972 0.75643736 1.370199e-38
0.89518523 -1.3427972 0.75613284 1.370199e-38
0.90496504 -1.3427972 0.75613326 1.370199e-38
0.91195041 -1.342797 0.75613248 1.370199e-38
0.35957408 -1.6148109 0.78519267 2.3589697e-39
0.36416462 -1.5948291 0.78507978 2.3589697e-39
0.46344385 -1.5922461 0.78467691 2.3589697e-39
0.36769882 -1.5878805 0.78524661 2.3589697e-39
0.45831838 -1.5838355 0.78565019 2.3589697e-39
0.38224471 -1.5721909 0.78485227 2.3589697e-39
0.44647223 -1.572225 0.78483462 2.3589697e-39
0.38785461 -1.5687213 0.78497195 2.3589697e-39
0.39503703 -1.5653913 0.78502214 2.3589697e-39
0.40500355 -1.5626758 0.78506166 2.3589697e-39
0.41558361 -1.5618781 0.78482223 2.3589697e-39
0.43625924 -1.5664177 0.78522098 2.3589697e-39
0.44261965 -1.5696243 0.78626084 2.3589697e-39
0.35977447 -1.6203449 0.79312682 2.3589697e-39
0.36017296 -1.6245031 0.79637134 2.3589697e-39
0.35950929 -1.6175785 0.79096842 2.3589697e-39
0.36044607 -1.6064069 0.79507756 2.3589697e-39
0.3635157 -1.5964488 0.79498792 2.3589697e-39
0.36824968 -1.587109 0.79462069 2.3589697e-39
0.37198028 -1.5820094 0.79557592 2.3589697e-39
0.45667815 -1.58183 0.79567069 2.3589697e-39
0.46156934 -1.5887185 0.79375458 2.3589697e-39
0.3769263 -1.5766661 0.79534006 2.3589697e-39
0.38276377 -1.5718352 0.79466569 2.3589697e-39
0.44659796 -1.5722344 0.79445028 2.3589697e-39
0.45265761 -1.5771977 0.7946074 2.3589697e-39
0.38723674 -1.5690498 0.79475749 2.3589697e-39
0.39555621 -1.5652139 0.79471612 2.3589697e-39
0.40528545 -1.5626174 0.79506761 2.3589697e-39
0.4149884 -1.5618201 0.79585636 2.3589697e-39
0.42456686 -1.5627891 0.79532814 2.3589697e-39
0.43420601 -1.5655549 0.79426432 2.3589697e-39
0.44140467 -1.5689713 0.79550916 2.3589697e-39
0.35995501 -1.6109955 0.80880755 2.3589697e-39
0.36126339 -1.6040167 0.80470735 2.3589697e-39
0.36503577 -1.5928488 0.80582708 2.3589697e-39
0.46465114 -1.5945197 0.80494332 2.3589697e-39
0.36872736 -1.5860186 0.8041082 2.3589697e-39
0.37178677 -1.5822442 0.80611354 2.3589697e-39
0.45791927 -1.5833482 0.80552942 2.3589697e-39
0.46017933 -1.5861125 0.80050373 2.3589697e-39
0.37678254 -1.5768074 0.8050229 2.3589697e-39
0.38324246 -1.571462 0.80478811 2.3589697e-39
0.44604024 -1.5718853 0.80385464 2.3589697e-39
0.45193836 -1.5767411 0.80638623 2.3589697e-39
0.38732347 -1.5690035 0.80610532 2.3589697e-39
0.39461979 -1.565586 0.80441362 2.3589697e-39
0.40475351 -1.5626751 0.80597997 2.3589697e-39
0.41453111 -1.5618711 0.80641282 2.3589697e-39
0.42496324 -1.5629146 0.80585158 2.3589697e-39
0.43508092 -1.5659168 0.80423617 2.3589697e-39
0.44177938 -1.5691731 0.8060146 2.3589697e-39
0.35974693 -1.6130749 0.81487256 2.3589697e-39
0.36116388 -1.6035185 0.81624651 2.3589697e-39
0.36437163 -1.5943803 0.81567293 2.3589697e-39
0.46278039 -1.5910003 0.81389427 2.3589697e-39
0.36800304 -1.5873137 0.8140564 2.3589697e-39
0.37172905 -1.5823135 0.81491596 2.3589697e-39
0.45788258 -1.5833033 0.81439543 2.3589697e-39
0.3766275 -1.5768111 0.81534517 2.3589697e-39
0.38233602 -1.5721126 0.81501168 2.3589697e-39
0.44738579 -1.5728571 0.81532115 2.3589697e-39
0.4534618 -1.5779634 0.81543976 2.3589697e-39
0.38790545 -1.5686938 0.81506592 2.3589697e-39
0.39502087 -1.5653688 0.81507647 2.3589697e-39
0.40405226 -1.5628281 0.81603771 2.3589697e-39
0.41490719 -1.5618587 0.81431699 2.3589697e-39
0.4259173 -1.5630578 0.81530446 2.3589697e-39
0.43545869 -1.5660704 0.81470335 2.3589697e-39
0.44239545 -1.5695049 0.81463701 2.3589697e-39
0.35985208 -1.6211665 0.82854229 2.3589697e-39
0.35952124 -1.6165891 0.82375503 2.3589697e-39
0.36059952 -1.6054636 0.82587665 2.3589697e-39
0.36372766 -1.5959862 0.82543927 2.3589697e-39
0.46642685 -1.599545 0.82537448 2.3589697e-39
0.36843261 -1.5867859 0.82490325 2.3589697e-39
0.37228176 -1.5816416 0.82405996 2.3589697e-39
0.45712546 -1.5823783 0.82543147 2.3589697e-39
0.46092471 -1.5875083 0.82277107 2.3589697e-39
0.37666401 -1.5768976 0.82502604 2.3589697e-39
0.38237968 -1.5721482 0.82492107 2.3589697e-39
0.44631669 -1.5720767 0.82553977 2.3589697e-39
0.45205429 -1.5767013 0.82487857 2.3589697e-39
0.38779861 -1.5687504 0.82378829 2.3589697e-39
0.39502612 -1.5654098 0.82585561 2.3589697e-39
0.4055616 -1.5625926 0.82392204 2.3589697e-39
0.41499731 -1.561819 0.82394171 2.3589697e-39
0.42403764 -1.5626752 0.82392687 2.3589697e-39
0.43410259 -1.5655384 0.82547122 2.3589697e-39
0.44119063 -1.5688573 0.82373112 2.3589697e-39
0.36024708 -1.6252875 0.83179849 2.3589697e-39
0.36113048 -1.6044698 0.83519858 2.3589697e-39
0.36468941 -1.5934818 0.83549833 2.3589697e-39
0.46398026 -1.59326 0.83385921 2.3589697e-39
0.36795202 -1.5874538 0.83437097 2.3589697e-39
0.37148201 -1.5826126 0.83405572 2.3589697e-39
0.45875147 -1.5843668 0.83490288 2.3589697e-39
0.37662104 -1.5770061 0.83461243 2.3589697e-39
0.38333347 -1.5714207 0.83459097 2.3589697e-39
0.44585085 -1.5717125 0.83530873 2.3589697e-39
0.45250821 -1.5772661 0.83505756 2.3589697e-39
0.38813913 -1.5685692 0.83519471 2.3589697e-39
0.39450812 -1.5655967 0.83517283 2.3589697e-39
0.40484038 -1.5626599 0.83392364 2.3589697e-39
0.4144327 -1.5618521 0.83468962 2.3589697e-39
0.42489243 -1.5628977 0.83380049 2.3589697e-39
0.43570951 -1.5661551 0.83601022 2.3589697e-39
0.44156298 -1.5690578 0.83407521 2.3589697e-39
0.35986522 -1.6118851 0.84552777 2.3589697e-39
0.36001986 -1.6103389 0.84103423 2.3589697e-39
0.36146021 -1.6025448 0.84492397 2.3589697e-39
0.36467242 -1.5936323 0.84415579 2.3589697e-39
0.46258944 -1.5906438 0.8404333 2.3589697e-39
0.36806574 -1.5871943 0.84565383 2.3589697e-39
0.37189785 -1.5821069 0.84475118 2.3589697e-39
0.45713106 -1.5823852 0.84460872 2.3589697e-39
0.46120775 -1.5880437 0.84696257 2.3589697e-39
0.37710714 -1.5763925 0.84418362 2.3589697e-39
0.38242984 -1.5720472 0.84466553 2.3589697e-39
0.44757921 -1.5730165 0.84520864 2.3589697e-39
0.45281726 -1.5773299 0.84543931 2.3589697e-39
0.38795426 -1.5686674 0.84466171 2.3589697e-39
0.39495915 -1.5653986 0.8451823 2.3589697e-39
0.40481594 -1.5627049 0.84457755 2.3589697e-39
0.415207 -1.5618644 0.84435081 2.3589697e-39
0.42525566 -1.5629125 0.8441577 2.3589697e-39
0.43532994 -1.5659995 0.84559321 2.3589697e-39
0.44193545 -1.5692587 0.84435922 2.3589697e-39
0.35955793 -1.6149802 0.85449833 2.3589697e-39
0.36088762 -1.6044183 0.85445452 2.3589697e-39
0.3641274 -1.5949688 0.85465795 2.3589697e-39
0.46470332 -1.5946194 0.85582179 2.3589697e-39
0.36832026 -1.5869875 0.85545701 2.3589697e-39
0.37177429 -1.5822566 0.85418832 2.3589697e-39
0.45756716 -1.58292 0.85472322 2.3589697e-39
0.37677214 -1.5767628 0.8548457 2.3589697e-39
0.38246953 -1.5720702 0.85441828 2.3589697e-39
0.44578537 -1.571673 0.85519022 2.3589697e-39
0.45223698 -1.5769715 0.8559708 2.3589697e-39
0.38734639 -1.5689906 0.85413665 2.3589697e-39
0.39500505 -1.5654248 0.85537428 2.3589697e-39
0.40509373 -1.5626477 0.85425442 2.3589697e-39
0.41462332 -1.56181 0.85502094 2.3589697e-39
0.42402479 -1.5626924 0.85457444 2.3589697e-39
0.43372947 -1.5653877 0.85492563 2.3589697e-39
0.44050393 -1.5684894 0.85507518 2.3589697e-39
0.35992837 -1.621973 0.86331475 2.3589697e-39
0.3601892 -1.6246947 0.86549145 2.3589697e-39
0.35966814 -1.6192567 0.86114079 2.3589697e-39
0.36090717 -1.6049854 0.86631376 2.3589697e-39
0.36399332 -1.5953437 0.86525112 2.3589697e-39
0.46332079 -1.5920219 0.86228365 2.3589697e-39
0.36817187 -1.5871416 0.86365187 2.3589697e-39
0.37152052 -1.5825644 0.86521703 2.3589697e-39
0.45799628 -1.5834442 0.86478192 2.3589697e-39
0.46194381 -1.5894315 0.86871338 2.3589697e-39
0.3763997 -1.5772077 0.8651191 2.3589697e-39
0.38341305 -1.5713435 0.86392093 2.3589697e-39
0.44785467 -1.5732437 0.86639673 2.3589697e-39
0.45253634 -1.5771732 0.8644526 2.3589697e-39
0.38802975 -1.5686269 0.86612296 2.3589697e-39
0.39487037 -1.5654869 0.86466402 2.3589697e-39
0.40457058 -1.5627023 0.86481363 2.3589697e-39
0.41457617 -1.5618793 0.86553407 2.3589697e-39
0.42541623 -1.5629886 0.86433011 2.3589697e-39
0.43581855 -1.5662273 0.86476004 2.3589697e-39
0.44267166 -1.5696541 0.86475974 2.3589697e-39
0.35993028 -1.6112266 0.87711763 2.3589697e-39
0.36119229 -1.604079 0.87536848 2.3589697e-39
0.36475834 -1.5934329 0.87534183 2.3589697e-39
0.46495855 -1.5950991 0.87967211 2.3589697e-39
0.36824447 -1.5868587 0.87509775 2.3589697e-39
0.37193274 -1.5820633 0.87571955 2.3589697e-39
0.45607305 -1.5810924 0.87618971 2.3589697e-39
0.46058559 -1.5868917 0.87508291 2.3589697e-39
0.37709734 -1.5764006 0.87507105 2.3589697e-39
0.3822524 -1.5721873 0.87470132 2.3589697e-39
0.44630703 -1.5720208 0.87449247 2.3589697e-39
0.45222148 -1.5768398 0.8748557 2.3589697e-39
0.3878468 -1.568724 0.87542838 2.3589697e-39
0.39489758 -1.5654279 0.8747865 2.3589697e-39
0.40498236 -1.5626951 0.87500215 2.3589697e-39
0.41539702 -1.5618302 0.87542802 2.3589697e-39
0.42477456 -1.5628194 0.87494063 2.3589697e-39
0.43454054 -1.5656813 0.87466156 2.3589697e-39
0.44124579 -1.5688888 0.87534708 2.3589697e-39
0.35967505 -1.6137775 0.8845064 2.3589697e-39
0.36099422 -1.6040653 0.88565874 2.3589697e-39
0.36412013 -1.5949935 0.88484269 2.3589697e-39
0.4635846 -1.5925186 0.88601792 2.3589697e-39
0.36838213 -1.5868838 0.88632584 2.3589697e-39
0.37181008 -1.5822115 0.88499659 2.3589697e-39
0.45885324 -1.5844947 0.88474983 2.3589697e-39
0.37676528 -1.5767673 0.88555568 2.3589697e-39
0.38241288 -1.5721121 0.88506365 2.3589697e-39
0.44576317 -1.5716823 0.88346922 2.3589697e-39
0.45216027 -1.5769678 0.88565379 2.3589697e-39
0.38724437 -1.5690444 0.88474572 2.3589697e-39
0.39534274 -1.5653185 0.88469714 2.3589697e-39
0.40536371 -1.5625727 0.88518786 2.3589697e-39
0.41425771 -1.5618088 0.88555884 2.3589697e-39
0.42416281 -1.5627505 0.88543808 2.3589697e-39
0.43474382 -1.5658379 0.88472664 2.3589697e-39
0.44161245 -1.5690856 0.88540089 2.3589697e-39
0.35974544 -1.6200734 0.89528072 2.3589697e-39
0.36013252 -1.624114 0.89855313 2.3589697e-39
0.35947964 -1.616601 0.89175665 2.3589697e-39
0.36091027 -1.6045933 0.89563859 2.3589697e-39
0.36420023 -1.5949148 0.89450735 2.3589697e-39
0.36823621 -1.5870428 0.89437926 2.3589697e-39
0.37155834 -1.5825167 0.8958407 2.3589697e-39
0.45693532 -1.5821476 0.89601344 2.3589697e-39
0.46176299 -1.5890939 0.8944245 2.3589697e-39
0.37669751 -1.5769051 0.89513057 2.3589697e-39
0.38334703 -1.5713857 0.89439481 2.3589697e-39
0.44730541 -1.5727917 0.89540428 2.3589697e-39
0.45298132 -1.5774883 0.89485264 2.3589697e-39
0.38792223 -1.5686836 0.89652091 2.3589697e-39
0.3947857 -1.5655074 0.89415431 2.3589697e-39
0.40485495 -1.5626752 0.89554024 2.3589697e-39
0.41510591 -1.5618834 0.8952812 2.3589697e-39
0.42552137 -1.562966 0.89506638 2.3589697e-39
0.43527693 -1.5659719 0.89474368 2.3589697e-39
0.44197917 -1.5692825 0.89539719 2.3589697e-39
0.35994333 -1.6110852 0.90960371 2.3589697e-39
0.36004442 -1.6100721 0.90668195 2.3589697e-39
0.36118847 -1.6041772 0.90329611 2.3589697e-39
0.36473671 -1.5934298 0.90517414 2.3589697e-39
0.46475458 -1.5947163 0.9052999 2.3589697e-39
0.36842003 -1.5865289 0.90405488 2.3589697e-39
0.37178117 -1.582247 0.90538061 2.3589697e-39
0.45814288 -1.5836269 0.90540951 2.3589697e-39
0.46040463 -1.5865377 0.90068871 2.3589697e-39
0.37660122 -1.5769132 0.90471333 2.3589697e-39
0.38246122 -1.5720134 0.90414828 2.3589697e-39
0.4455483 -1.5715029 0.9050566 2.3589697e-39
0.45228529 -1.5770593 0.90596098 2.3589697e-39
0.38774112 -1.5687799 0.90566891 2.3589697e-39
0.394492 -1.5655725 0.90451324 2.3589697e-39
0.40471625 -1.5627445 0.90518332 2.3589697e-39
0.41502315 -1.5618144 0.90562272 2.3589697e-39
0.42430422 -1.562737 0.90518665 2.3589697e-39
0.43362564 -1.5653378 0.90437478 2.3589697e-39
0.4405683 -1.5685253 0.90578812 2.3589697e-39
0.35974118 -1.6131085 0.91544175 2.3589697e-39
0.3611927 -1.6034116 0.91477513 2.3589697e-39
0.36420691 -1.5947708 0.91535443 2.3589697e-39
0.46293816 -1.591305 0.91358781 2.3589697e-39
0.36836171 -1.5868839 0.91561371 2.3589697e-39
0.37205577 -1.5819132 0.91422617 2.3589697e-39
0.45778957 -1.5831947 0.9156372 2.3589697e-39
0.46158391 -1.5887597 0.91976327 2.3589697e-39
0.37675843 -1.5767719 0.91574043 2.3589697e-39
0.38210869 -1.5723482 0.91446215 2.3589697e-39
0.44763127 -1.5730604 0.9156515 2.3589697e-39
0.45291722 -1.577558 0.91407108 2.3589697e-39
0.38714415 -1.5690973 0.91483241 2.3589697e-39
0.39516783 -1.5653787 0.914738 2.3589697e-39
0.40509325 -1.5626153 0.91519684 2.3589697e-39
0.41497305 -1.5618726 0.91584355 2.3589697e-39
0.42567912 -1.5630442 0.91466606 2.3589697e-39
0.43601403 -1.5662917 0.91458881 2.3589697e-39
0.44270459 -1.5696721 0.91522861 2.3589697e-39
0.35982138 -1.6208755 0.92881227 2.3589697e-39
0.35951447 -1.6164929 0.92403024 2.3589697e-39
0.3605566 -1.6056401 0.92550945 2.3589697e-39
0.46723497 -1.6022307 0.92369223 2.3589697e-39
0.36358061 -1.5963311 0.92467326 2.3589697e-39
0.36801139 -1.5874504 0.92534775 2.3589697e-39
0.37159574 -1.5824709 0.9259401 2.3589697e-39
0.45744026 -1.5827678 0.92580813 2.3589697e-39
0.46068472 -1.5870675 0.92385989 2.3589697e-39
0.37669134 -1.5769086 0.92515457 2.3589697e-39
0.38328215 -1.5714272 0.92434996 2.3589697e-39
0.4462882 -1.572005 0.92474663 2.3589697e-39
0.45211828 -1.5767555 0.92522317 2.3589697e-39
0.38823143 -1.568519 0.92633855 2.3589697e-39
0.39483091 -1.565459 0.92438513 2.3589697e-39
0.40506792 -1.5626568 0.92537272 2.3589697e-39
0.41522774 -1.5618584 0.92511147 2.3589697e-39
0.42504272 -1.5628659 0.92497742 2.3589697e-39
0.43468297 -1.5657344 0.92475796 2.3589697e-39
0.44129887 -1.5689176 0.92549676 2.3589697e-39
0.36020494 -1.6248803 0.9320938 2.3589697e-39
0.36107692 -1.604689 0.93427396 2.3589697e-39
0.36482382 -1.5932502 0.93530124 2.3589697e-39
0.46365091 -1.5926441 0.93462139 2.3589697e-39
0.36847758 -1.5864192 0.9340899 2.3589697e-39
0.37200093 -1.5819798 0.93607163 2.3589697e-39
0.45779294 -1.5832002 0.93387806 2.3589697e-39
0.37659588 -1.5769165 0.93457508 2.3589697e-39
0.38214439 -1.5722685 0.93478692 2.3589697e-39
0.44575205 -1.5716715 0.93346137 2.3589697e-39
0.45205006 -1.5768533 0.93573248 2.3589697e-39
0.38763729 -1.5688348 0.93539661 2.3589697e-39
0.39508966 -1.5653775 0.93499154 2.3589697e-39
0.40487158 -1.562701 0.93459612 2.3589697e-39
0.41465715 -1.5618048 0.93529934 2.3589697e-39
0.42443889 -1.5627978 0.93517685 2.3589697e-39
0.4349888 -1.5659063 0.93508053 2.3589697e-39
0.44166026 -1.5691116 0.93527204 2.3589697e-39
0.35980591 -1.6124501 0.94582957 2.3589697e-39
0.36000609 -1.6104436 0.94006169 2.3589697e-39
0.36129493 -1.6030737 0.94492376 2.3589697e-39
0.36429206 -1.594551 0.94534153 2.3589697e-39
0.36809674 -1.5872672 0.94556791 2.3589697e-39
0.37151369 -1.5825713 0.94500864 2.3589697e-39
0.45674571 -1.5819188 0.94595003 2.3589697e-39
0.46140802 -1.5884306 0.94473004 2.3589697e-39
0.37675175 -1.5767764 0.94541329 2.3589697e-39
0.38274398 -1.5718842 0.94478083 2.3589697e-39
0.44727254 -1.5727655 0.9450888 2.3589697e-39
0.45286107 -1.5773712 0.94468307 2.3589697e-39
0.38745847 -1.5689299 0.94434416 2.3589697e-39
0.39484447 -1.5654809 0.94468969 2.3589697e-39
0.40482733 -1.562657 0.9446975 2.3589697e-39
0.41505706 -1.5618948 0.9450379 2.3589697e-39
0.42578045 -1.5630209 0.94453496 2.3589697e-39
0.43526429 -1.5659699 0.94538999 2.3589697e-39
0.44202161 -1.5693055 0.94499236 2.3589697e-39
0.35954005 -1.6163466 0.95574313 2.3589697e-39
0.3606472 -1.6052055 0.95554227 2.3589697e-39
0.36367106 -1.5960994 0.95452565 2.3589697e-39
0.46435463 -1.5939659 0.95544136 2.3589697e-39
0.36807537 -1.5873475 0.95502967 2.3589697e-39
0.3716327 -1.5824267 0.95552868 2.3589697e-39
0.45793629 -1.583377 0.95511907 2.3589697e-39
0.46010369 -1.58603 0.95069945 2.3589697e-39
0.37638873 -1.5772099 0.95519161 2.3589697e-39
0.38295656 -1.5716705 0.95463759 2.3589697e-39
0.44576266 -1.5716518 0.95534134 2.3589697e-39
0.45217699 -1.5769548 0.9554655 2.3589697e-39
0.38812408 -1.5685757 0.95571357 2.3589697e-39
0.3948248 -1.5654668 0.95466179 2.3589697e-39
0.4052279 -1.5626453 0.95443159 2.3589697e-39
0.41541347 -1.5618254 0.95479232 2.3589697e-39
0.42457569 -1.5627805 0.95437211 2.3589697e-39
0.43396035 -1.5654655 0.95534909 2.3589697e-39
0.44063044 -1.5685588 0.95507258 2.3589697e-39
0.359896 -1.6216635 0.96175152 2.3589697e-39
0.36027613 -1.6256335 0.96504128 2.3589697e-39
0.36099938 -1.6050246 0.96499056 2.3589697e-39
0.36490944 -1.5930732 0.96491438 2.3589697e-39
0.46301144 -1.5914434 0.96142334 2.3589697e-39
0.3684212 -1.5865289 0.96514362 2.3589697e-39
0.37203434 -1.5819398 0.96548218 2.3589697e-39
0.45758876 -1.5829521 0.96504802 2.3589697e-39
0.46167728 -1.5889378 0.96736509 2.3589697e-39
0.37706885 -1.5764238 0.96460891 2.3589697e-39
0.38232714 -1.5721172 0.96553648 2.3589697e-39
0.44777387 -1.5731785 0.96600384 2.3589697e-39
0.45279521 -1.5774289 0.96336865 2.3589697e-39
0.38753518 -1.5688888 0.96462435 2.3589697e-39
0.39570093 -1.5651716 0.96573317 2.3589697e-39
0.40507278 -1.562645 0.96378392 2.3589697e-39
0.41486305 -1.5618371 0.96477735 2.3589697e-39
0.42495441 -1.5628998 0.96399564 2.3589697e-39
0.43527466 -1.5660226 0.96521711 2.3589697e-39
0.44273663 -1.5696894 0.96427828 2.3589697e-39
0.35986924 -1.6118025 0.97568399 2.3589697e-39
0.3613959 -1.6027437 0.97455317 2.3589697e-39
0.36437568 -1.5943347 0.97481722 2.3589697e-39
0.46460491 -1.5944364 0.97800702 2.3589697e-39
0.36817765 -1.587157 0.97620249 2.3589697e-39
0.3715511 -1.582526 0.97427827 2.3589697e-39
0.45724496 -1.582532 0.97492296 2.3589697e-39
0.46034896 -1.5864408 0.97327691 2.3589697e-39
0.37685573 -1.5767159 0.97522759 2.3589697e-39
0.38299608 -1.5716872 0.97521514 2.3589697e-39
0.44649723 -1.5721689 0.97447616 2.3589697e-39
0.45278883 -1.5774823 0.97543985 2.3589697e-39
0.38735813 -1.5689828 0.9734236 2.3589697e-39
0.39458588 -1.565585 0.97567028 2.3589697e-39
0.40473863 -1.5627061 0.97457051 2.3589697e-39
0.41512859 -1.5618768 0.97376305 2.3589697e-39
0.42553687 -1.5629636 0.97422791 2.3589697e-39
0.4345417 -1.5657003 0.97562069 2.3589697e-39
0.44135049 -1.5689455 0.97424096 2.3589697e-39
0.35954601 -1.615388 0.9855988 2.3589697e-39
0.36075139 -1.6048483 0.98502856 2.3589697e-39
0.36384854 -1.595611 0.98466533 2.3589697e-39
0.46282649 -1.5910964 0.98583221 2.3589697e-39
0.36823663 -1.5870444 0.98498052 2.3589697e-39
0.37166905 -1.5823832 0.9846198 2.3589697e-39
0.45842358 -1.5839754 0.98395795 2.3589697e-39
0.37654355 -1.5770385 0.98523951 2.3589697e-39
0.38312945 -1.5715195 0.98502958 2.3589697e-39
0.44618306 -1.5719987 0.9846788 2.3589697e-39
0.45261019 -1.5772915 0.98481417 2.3589697e-39
0.38806799 -1.5686054 0.9848811 2.3589697e-39
0.39496815 -1.5653787 0.98532307 2.3589697e-39
0.40504166 -1.5626752 0.98518384 2.3589697e-39
0.41491821 -1.5618241 0.98479038 2.3589697e-39
0.42408526 -1.5627165 0.98564297 2.3589697e-39
0.43491524 -1.5658967 0.98510665 2.3589697e-39
0.44197842 -1.5692827 0.98581028 2.3589697e-39
0.35996926 -1.6224375 0.99411416 2.3589697e-39
0.36022031 -1.62506 0.99631125 2.3589697e-39
0.35971862 -1.6198192 0.99192029 2.3589697e-39
0.36099496 -1.6048034 0.99563533 2.3589697e-39
0.36470133 -1.5937184 0.99415213 2.3589697e-39
0.46569812 -1.5971367 0.99780023 2.3589697e-39
0.36836341 -1.5866274 0.9956606 2.3589697e-39
0.37182885 -1.5821897 0.9951911 2.3589697e-39
0.45738906 -1.5827098 0.9956615 2.3589697e-39
0.46106231 -1.5877831 0.99359477 2.3589697e-39
0.37692532 -1.5765605 0.99499339 2.3589697e-39
0.38201699 -1.5723704 0.99512392 2.3589697e-39
0.44699275 -1.5725564 0.99504679 2.3589697e-39
0.45222878 -1.5768477 0.99646205 2.3589697e-39
0.3874065 -1.5689571 0.99562019 2.3589697e-39
0.39537367 -1.5652866 0.99487281 2.3589697e-39
